839.912537	49.009514	0	0.025477	-0.999675	0
-28.671261	26.873562	0	0.025477	-0.999675	0
-28.671261	26.873562	189.169495	0.004463	-0.44716	0.894443
-32.648758	236.956161	189.169495	0.022106	-0.894154	0.447214
839.912537	49.009514	195.916672	0.019315	-0.894209	0.447234
839.644287	261.896057	195.916672	0.005851	-0.447126	0.894452
-32.648758	236.956161	402.78717	0.00882	-0.447137	0.894422
-38.766254	443.814209	402.78717	0.032261	-0.893844	0.447216
839.644287	261.896057	406.655945	0.02358	-0.894116	0.447214
834.675354	477.274261	406.655945	0.013159	-0.447	0.894437
-45.334736	660.273376	612.267395	0.020832	-0.894205	0.447173
-38.766254	443.814209	612.267395	0.005194	-0.447216	0.894411
834.675354	477.274261	623.940674	0.02827	-0.893978	0.447218
830.541138	686.516357	623.940674	0.001467	-0.447323	0.894371
-45.334736	660.273376	825.868958	0.00603	-0.447207	0.89441
-49.960167	873.315491	825.868958	0.024124	-0.894102	0.447212
830.541138	686.516357	833.078674	0.023109	-0.894136	0.4472
824.292664	900.510193	833.078674	0.006541	-0.447193	0.894414
-49.960167	873.315491	1033.691528	0.007457	-0.447131	0.894437
-54.082726	1091.228638	1033.691528	0.022487	-0.894144	0.447215
824.292664	900.510193	1039.999146	0.024585	-0.894086	0.44722
820.539001	1116.379517	1039.999146	0.006407	-0.44716	0.894431
-54.082726	1091.228638	1246.213867	0.004123	-0.447318	0.894366
-60.597565	1297.253784	1246.213867	0.026418	-0.894045	0.447197
820.539001	1116.379517	1254.755737	0.021346	-0.89419	0.447178
812.795288	1327.333984	1254.755737	0.006662	-0.447247	0.894386
-64.241791	1509.591309	1461.6427	0.028038	-0.893985	0.447219
-60.597565	1297.253784	1461.6427	0.013074	-0.447006	0.894435
812.795288	1327.333984	1463.906372	0.029629	-0.893936	0.447215
806.979065	1538.048218	1463.906372	0.01228	-0.447032	0.894434
-64.241791	1509.591309	1667.061646	-0.000477	-0.447378	0.894345
-69.678215	1728.665161	1667.061646	0.014547	-0.894341	0.44715
806.979065	1538.048218	1681.76001	0.021663	-0.894186	0.447171
801.546692	1750.185181	1681.76001	-0.004034	-0.447456	0.894297
-69.678215	1728.665161	1877.000854	-0.007007	-0.447841	0.894086
-77.292572	1943.799561	1877.000854	0.010902	-0.89443	0.447075
801.546692	1750.185181	1894.55835	0.013085	-0.894437	0.447002
789.155884	1963.136353	1894.55835	-0.008071	-0.447858	0.894068
-77.292572	1943.799561	2093.620117	0.027309	-0.706743	-0.706943
-81.906662	2393.167969	2093.620117	-0.399115	-0.799717	-0.448509
765.369751	1962.605469	2107.371826	0.226134	0.974092	0.002901
789.155884	1963.136353	2107.748779	0.012864	-0.89418	0.447522
787.885132	1951.163696	2107.748779	-0.330634	-0.627406	0.705013
787.885132	1951.163696	2307.081299	-0.399842	-0.799589	0.448089
785.556763	1926.063477	2307.081299	-0.628111	-0.315575	0.711259
768.256042	1961.138672	2307.365479	0.001838	-0.011155	0.999936
-81.906662	2393.167969	2307.820801	-0.205029	-0.4173	0.885338
-98.484573	2863.748047	2321.869141	0.000182	-0.029834	0.999555
321.785309	2866.30957	2321.869141	-0.632738	-0.328211	0.70137
798.294434	2024.88562	2517.40332	-0.686418	-0.02104	0.726903
785.556763	1926.063477	2517.40332	-0.621042	-0.321791	0.714673
321.785309	2866.30957	2524.704834	-0.633024	-0.317718	0.705929
779.982666	2874.546875	2524.704834	-0.696846	-0.020859	0.716917
779.982666	2874.546875	2733.537842	-0.999768	-0.021547	0
798.294434	2024.88562	2739.61792	-0.999768	-0.021547	0
