-119.314049	-218.354218	0	-0.013771	0.697153	0.716791
649.865051	-203.160553	0	-0.017616	0.891815	0.452058
-126.869263	-12.662305	5.677606	0.000545	-0.027572	0.99962
-115.927483	-440.014771	201.868134	-0.019574	0.446832	0.894403
-119.314049	-218.354218	201.868134	-0.018837	0.894231	0.44721
649.865051	-203.160553	203.88588	-0.011177	0.447086	0.894421
653.553162	-410.347107	203.88588	-0.035631	0.893723	0.447202
653.553162	-410.347107	398.151123	-0.006361	0.447524	0.894249
673.917786	-628.548462	398.151123	-0.02116	0.894262	0.447044
-115.927483	-440.014771	407.598633	-0.028977	0.893971	0.447186
-108.387024	-651.782104	407.598633	-0.002407	0.447639	0.894211
673.917786	-628.548462	605.017456	-0.006678	0.447187	0.894416
678.152222	-848.587891	605.017456	-0.024633	0.894086	0.447217
-108.387024	-651.782104	610.783264	-0.023259	0.894131	0.447201
-101.664909	-872.956543	610.783264	-0.007371	0.447168	0.89442
678.152222	-848.587891	815.74939	-0.012498	0.447039	0.894427
684.662598	-1063.075806	815.74939	-0.028516	0.893972	0.447214
-101.664909	-872.956543	817.032471	-0.027201	0.894013	0.447214
-95.671928	-1088.608643	817.032471	-0.013155	0.447018	0.894428
-95.671928	-1088.608643	1019.879822	-0.029256	0.893949	0.447214
-89.119354	-1313.472168	1019.879822	-0.012857	0.447029	0.894427
684.662598	-1063.075806	1019.889038	-0.014636	0.446974	0.894427
691.192688	-1291.048706	1019.889038	-0.025697	0.894058	0.447214
-89.119354	-1313.472168	1229.092773	-0.027762	0.893997	0.447212
-81.996849	-1531.364014	1229.092773	-0.017053	0.446889	0.894427
691.192688	-1291.048706	1232.707153	-0.016983	0.446891	0.894427
699.071106	-1508.795776	1232.707153	-0.027901	0.893991	0.447215
699.071106	-1508.795776	1434.134521	-0.011451	0.447074	0.894424
706.299805	-1729.721802	1434.134521	-0.027074	0.894018	0.447213
-81.996849	-1531.364014	1435.415649	-0.0251	0.894076	0.447212
-74.709053	-1754.014282	1435.415649	-0.012438	0.447045	0.894425
-74.709053	-1754.014282	1639.201172	-0.028899	0.89396	0.447213
-67.225418	-1975.588867	1639.201172	-0.017508	0.446946	0.89439
696.911255	-1949.435181	1641.110596	-0.031712	0.893883	0.447178
706.299805	-1729.721802	1641.110596	-0.016114	0.446992	0.894393
-67.225418	-1975.588867	1841.587524	-0.035614	0.894965	0.444713
696.911255	-1949.435181	1850.148438	-0.11887	0.523829	0.843489
-34.760918	-2802.542725	1852.976807	-0.081039	0.066975	0.994458
732.97583	-2783.319824	1852.976807	-0.447953	-0.025215	0.893701
696.149719	-2016.122803	1863.952637	-0.07822	0.057668	0.995267
711.823608	-2019.487061	1863.952637	-0.89422	-0.031179	0.44654
732.97583	-2783.319824	2045.210083	-0.706107	-0.034586	0.70726
949.045044	-2778.853027	2045.210083	-0.706362	-0.037254	0.706869
711.823608	-2019.487061	2061.65918	-0.705735	-0.034782	0.707621
924.144043	-1994.601196	2061.65918	-0.705991	-0.037452	0.70723
949.045044	-2778.853027	2258.878906	-0.706699	-0.02437	0.707094
1167.971802	-2774.680664	2258.878906	-0.706853	-0.019241	0.707099
924.144043	-1994.601196	2261.022217	-0.706697	-0.024371	0.707097
1148.73645	-1989.251465	2261.022217	-0.706851	-0.019242	0.707101
1167.971802	-2774.680664	2467.615723	-0.706893	-0.017626	0.707101
1385.450562	-2764.360107	2467.615723	-0.7068	-0.02074	0.70711
1363.49646	-2004.490234	2467.958496	-0.706809	-0.020735	0.7071
1148.73645	-1989.251465	2467.958496	-0.706902	-0.017621	0.707092
1430.793701	-2000.18042	2670.146973	0.081652	-0.004404	0.996651
1385.450562	-2764.360107	2670.485352	-0.886936	-0.028753	0.460996
1363.49646	-2004.490234	2675.641357	-0.677257	-0.024557	0.735337
