-31.352287	47.11097	0	0.010367	-0.887358	0.460965
835.968384	57.243847	0	0.007918	-0.677733	0.735266
-25.338747	14.190444	2.688581	-0.000949	0.081226	0.996695
828.618225	277.101837	193.354248	0.011161	-0.706992	0.707134
835.968384	57.243847	193.354248	0.011313	-0.707019	0.707104
-31.352287	47.11097	197.081131	0.011299	-0.707048	0.707075
-30.252081	267.271362	197.081131	0.011146	-0.707021	0.707105
-30.252081	267.271362	384.568176	0.003911	-0.45329	0.891355
828.618225	277.101837	387.248077	0.007903	-0.709588	0.704573
981.30188	329.029877	387.248077	-0.70616	-0.009881	0.707983
975.789368	1196.806396	393.861084	-0.554693	-0.010376	0.83199
-44.486206	1160.1427	393.861084	0.000374	-0.010401	0.999946
975.789368	1196.806396	576.379761	-0.707156	0.005647	0.707035
1191.542114	1198.140137	576.379761	-0.707181	0.005452	0.707012
981.30188	329.029877	588.823608	-0.70718	0.005658	0.707011
1197.294189	332.430969	588.823608	-0.707205	0.005463	0.706988
1401.732788	1203.904175	774.939209	-0.707248	0.003657	0.706956
1191.542114	1198.140137	774.939209	-0.707266	0.005574	0.706925
1197.294189	332.430969	787.520508	-0.70725	0.005567	0.706942
1409.835938	336.909576	787.520508	-0.707232	0.003649	0.706972
1401.732788	1203.904175	980.436829	-0.707167	0.001419	0.707045
1619.487427	1206.803589	980.436829	-0.707166	0.002093	0.707045
1409.835938	336.909576	990.281677	-0.707164	0.001418	0.707048
1626.765991	339.463715	990.281677	-0.707163	0.002091	0.707048
1619.487427	1206.803589	1181.344482	-0.707134	0.003468	0.707071
1836.426025	1207.39563	1181.344482	-0.70715	0.003173	0.707056
1626.765991	339.463715	1192.877319	-0.707151	0.003476	0.707054
1844.062256	341.590973	1192.877319	-0.707167	0.003181	0.707039
1836.426025	1207.39563	1383.34314	-0.707211	0.004426	0.706988
2054.05957	1210.866211	1383.34314	-0.707194	0.009427	0.706957
1844.062256	341.590973	1396.402344	-0.707205	0.004423	0.706995
2055.569092	344.472382	1396.402344	-0.707188	0.009424	0.706963
2260.364502	1214.061646	1586.678711	-0.707184	0.00202	0.707026
2054.05957	1210.866211	1586.678711	-0.707187	0.008145	0.70698
2055.569092	344.472382	1598.170288	-0.707181	0.008143	0.706986
2269.381104	347.286621	1598.170288	-0.707179	0.002017	0.707032
2474.085938	1213.194702	1787.937744	-0.707174	0.006532	0.707009
2260.364502	1214.061646	1787.937744	-0.70711	0.005569	0.707082
2269.381104	347.286621	1803.781738	-0.707174	0.005599	0.707018
2481.920654	350.614044	1803.781738	-0.707238	0.006561	0.706945
2474.085938	1213.194702	1988.873901	-0.707268	0.007769	0.706903
2691.287598	1217.039917	1988.873901	-0.70721	0.012466	0.706894
2481.920654	350.614044	2006.192871	-0.70723	0.007751	0.706941
2693.375	352.104767	2006.192871	-0.707172	0.012449	0.706932
2691.287598	1217.039917	2194.640625	-0.707182	0.007443	0.706992
2901.222656	1220.084961	2194.640625	-0.707121	-0.002536	0.707088
2693.375	352.104767	2205.834473	-0.707151	0.007429	0.707023
2915.547607	352.343658	2205.834473	-0.707091	-0.002551	0.707118
2901.222656	1220.084961	2396.311279	-0.707085	-0.00196	0.707126
3120.687744	1219.824951	2396.311279	-0.70713	0.004931	0.707066
2915.547607	352.343658	2408.230225	-0.707097	-0.001954	0.707114
3126.554688	353.173035	2408.230225	-0.707143	0.004937	0.707054
3120.687744	1219.824951	2609.04541	-0.708765	-0.001472	0.705443
3338.560547	1234.645752	2610.001953	-0.002549	0.002357	0.999994
3530.521484	1236.986572	2610.520508	-0.008738	-0.009881	0.999913
4037.697266	882.419739	2611.449219	-0.005909	-0.005383	0.999968
3126.554688	353.173035	2613.131348	-0.707978	-0.001852	0.706232
3945.245117	1235.193481	2616.622559	-0.01479	-0.018537	0.999719
